-0.338213 -0.160718 0.281594 
0.640216 1.084676 5.690362 
0.773779 1.514545 6.045439 
0.793934 1.537368 6.138720 
0.877779 0.715028 5.778769 
0.899524 1.212558 5.882291 
0.988164 0.999466 5.703520 
1.071249 1.601072 5.646080 
1.270853 2.402114 5.796107 
1.208189 2.390202 5.445609 
0.966251 1.202691 4.673738 
1.246200 1.400118 5.501154 
-1.131563 -0.216370 -0.772879 
1.336834 0.818850 5.748453 
-1.041452 -0.255473 -0.627592 
1.524887 2.981182 5.511160 
1.579750 2.706647 5.437736 
1.439313 1.363839 5.325968 
1.572270 3.038118 5.314826 
1.558206 0.944191 5.497606 
1.578110 0.750378 5.569946 
1.755932 3.360260 5.502862 
1.620812 0.839635 5.499017 
1.524870 1.270145 5.092066 
1.883803 3.511720 5.439103 
1.700936 2.212684 5.175509 
1.854327 2.959569 5.299483 
1.909184 3.135324 5.355773 
1.871153 2.798741 5.206529 
1.897747 2.555201 5.182078 
1.745341 1.282470 4.830937 
1.930055 2.428404 4.997585 
1.895422 1.447243 4.954127 
1.962798 0.892162 5.102932 
-1.826999 -0.116300 -1.388985 
1.981771 1.894307 4.864943 
2.052609 2.383484 4.855018 
-0.697069 -0.206349 -0.133738 
2.005802 1.773863 4.688748 
2.214467 2.418822 4.842869 
2.746773 0.929413 5.585876 
2.702223 0.910906 5.435601 
2.492490 3.068394 5.073922 
2.749044 3.800906 5.377899 
2.588613 0.222083 5.246462 
2.248282 2.135832 4.590873 
2.423368 2.464299 4.800132 
2.423368 2.464299 4.800132 
-1.119563 -0.253185 -0.474980 
2.491953 2.802903 4.717882 
0.100205 0.277441 0.961570 
0.115307 0.107092 1.086880 
-0.084359 0.065148 0.694005 
2.600429 2.660882 4.596393 
2.341861 1.405209 4.309645 
2.633939 2.918814 4.535913 
2.817980 3.494793 4.672694 
2.796600 3.089192 4.549448 
2.561509 1.085535 4.357418 
2.515777 1.203565 4.181781 
2.579676 1.019723 4.232967 
2.636458 1.416192 4.144107 
2.689714 0.965100 4.178383 
3.099813 -0.090505 4.664854 
3.099813 -0.090505 4.664854 
3.063120 0.067711 4.598751 
2.627636 1.157514 4.066518 
2.894115 1.966285 4.231755 
3.222886 -0.265025 4.688815 
2.687931 1.337941 4.014780 
2.732080 1.495123 4.010259 
3.386026 -0.665830 4.577665 
2.842712 1.790211 4.054377 
2.783764 0.857447 3.957889 
3.300154 -0.130330 4.495867 
3.276531 -0.003258 4.465681 
3.241830 -0.000103 4.422993 
3.241830 -0.000103 4.422993 
3.409295 -0.408553 4.604909 
2.972496 0.669608 4.145539 
3.061712 0.455855 4.017687 
3.845653 1.339879 4.806929 
3.845653 1.339879 4.806929 
3.362278 -0.068382 4.215565 
3.110108 0.417960 3.958045 
3.215639 1.488485 3.657122 
3.406495 2.062712 3.688674 
3.316636 1.406410 3.651776 
3.234202 1.001216 3.598466 
3.438985 1.447983 3.672146 
4.225119 0.008836 3.956181 
3.421713 1.103219 3.632440 
3.311179 0.553977 3.544359 
3.674571 1.671989 3.744269 
3.700831 1.409753 3.747872 
3.848434 1.803009 3.824050 
3.665997 1.557299 3.689574 
3.811922 2.052235 3.758003 
3.530932 0.865936 3.626398 
3.568599 0.984717 3.630930 
3.564638 0.982110 3.624505 
3.436416 0.547175 3.547560 
3.464890 0.732206 3.550839 
3.935100 1.738290 3.818957 
3.541097 0.744297 3.573503 
3.554665 0.623677 3.600642 
3.588206 0.859637 3.602959 
3.877486 1.933936 3.728537 
3.877486 1.933936 3.728537 
3.783144 1.187226 3.705864 
3.721320 1.369460 3.632776 
3.455507 0.506142 3.504741 
3.439999 0.340439 3.497132 
3.562741 0.629587 3.543856 
3.983496 1.628598 3.769385 
2.351067 0.158685 2.492336 
4.082611 2.022618 3.776536 
3.745084 1.234809 3.583690 
4.084358 2.144492 3.752695 
4.019009 1.653066 3.743668 
3.653601 0.622890 3.540471 
3.714977 -0.487354 3.613405 
4.066578 1.212699 3.738750 
3.663068 0.282079 3.498789 
4.084082 1.626878 3.683709 
4.084082 1.626878 3.683709 
3.991785 1.276258 3.644885 
3.714152 0.057924 3.516932 
0.200540 0.057980 1.228151 
4.049614 1.193001 3.646229 
4.258350 0.902358 3.829723 
4.258350 0.902358 3.829723 
4.210366 1.411264 3.736821 
3.892441 0.397636 3.586534 
3.892441 0.397636 3.586534 
4.280603 1.746895 3.748210 
3.064245 -0.631502 3.114555 
4.150640 1.462107 3.639212 
4.162727 1.269094 3.645694 
3.836169 0.665248 3.445114 
3.978770 0.507109 3.556929 
4.343836 1.631566 3.709318 
4.030996 0.420015 3.576510 
4.710131 1.113982 3.974896 
0.665259 -0.089274 1.394734 
4.221965 0.863303 3.624578 
3.818803 -0.234193 3.420876 
4.192395 1.008185 3.575047 
3.898445 -0.021434 3.449324 
3.955723 -0.119198 3.467191 
4.402250 1.254787 3.624477 
4.402250 1.254787 3.624477 
3.977158 -0.143236 3.425085 
3.914606 -0.553108 3.393806 
4.020747 -0.490039 3.386088 
3.932093 -0.652555 3.310410 
4.061822 -0.521019 3.364873 
4.098565 -0.554643 3.370784 
3.916418 -1.039281 3.266522 
4.027562 -0.743944 3.315212 
4.129693 -0.509313 3.346881 
4.248432 -0.393521 3.398604 
4.248432 -0.393521 3.398604 
4.131477 -0.552160 3.328392 
4.390945 -0.271813 3.467400 
4.144220 -0.769271 3.343873 
4.098742 -0.716392 3.291332 
4.096057 -0.774002 3.277126 
4.330812 -0.837111 3.321585 
7764 
-3.664787 -0.888812 -3.344490 
-10.746568 -0.472567 -7.655251 
-11.930557 -0.273267 -8.341878 
1.561822 0.367718 0.251221 
-2.904820 -0.812130 -2.837181 
-2.904820 -0.812130 -2.837181 
-0.723957 0.022952 -1.027243 
-10.100391 -0.130629 -7.119663 
-26.617313 1.651135 -16.933290 
-13.690368 0.799421 -9.062625 
-18.020916 1.630067 -11.471261 
-11.610886 0.802258 -7.742218 
-11.356869 0.872454 -7.561504 
-38.570539 6.374161 -22.784629 
-15.716679 1.761684 -9.987830 
-8.990874 0.662416 -6.132736 
-7.250313 0.399807 -5.136263 
-7.250313 0.399807 -5.136263 
-8.918252 0.745071 -6.053507 
-6.079787 0.217176 -4.470787 
-12.647798 1.523671 -8.152347 
0.848794 0.412005 -0.145196 
-10.630783 1.221028 -6.960850 
-11.047897 1.398072 -7.159946 
-8.039236 1.178314 -5.359278 
